5.624748 54.37269 -4.439999 1
9.374588 54.37269 -4.439999 1
5.624748 39.37331 -0.439999 1
9.374588 39.37331 -0.439999 1
13.12443 39.37331 -0.439999 1
16.87428 39.37331 -0.439999 1
5.624748 43.12316 -0.439999 1
9.374588 43.12316 -0.439999 1
13.12443 43.12316 -0.439999 1
16.87428 43.12316 -0.439999 1
20.62411 43.12316 -0.439999 1
5.624748 46.87299 -0.439999 1
9.374588 46.87299 -0.439999 1
13.12443 46.87299 -0.439999 1
16.87428 46.87299 -0.439999 1
20.62411 46.87299 -0.439999 1
5.624748 50.62284 -0.439999 1
9.374588 50.62284 -0.439999 1
13.12443 50.62284 -0.439999 1
16.87428 50.62284 -0.439999 1
20.62411 50.62284 -0.439999 1
5.624748 54.37269 -0.439999 1
9.374588 54.37269 -0.439999 1
13.12443 54.37269 -0.439999 1
16.87428 54.37269 -0.439999 1
20.62411 54.37269 -0.439999 1
13.12443 58.12252 -0.439999 1
16.87428 58.12252 -0.439999 1
20.62411 58.12252 -0.439999 1
9.374588 43.12316 3.560001 1
13.12443 43.12316 3.560001 1
16.87428 43.12316 3.560001 1
5.624748 46.87299 3.560001 1
9.374588 46.87299 3.560001 1
13.12443 46.87299 3.560001 1
16.87428 46.87299 3.560001 1
20.62411 46.87299 3.560001 1
5.624748 50.62284 3.560001 1
9.374588 50.62284 3.560001 1
13.12443 50.62284 3.560001 1
16.87428 50.62284 3.560001 1
20.62411 50.62284 3.560001 1
5.624748 54.37269 3.560001 1
9.374588 54.37269 3.560001 1
13.12443 54.37269 3.560001 1
16.87428 54.37269 3.560001 1
20.62411 54.37269 3.560001 1
5.624748 58.12252 3.560001 1
9.374588 58.12252 3.560001 1
13.12443 58.12252 3.560001 1
16.87428 58.12252 3.560001 1
20.62411 58.12252 3.560001 1
5.624748 50.62284 7.560001 1
9.374588 50.62284 7.560001 1
13.12443 50.62284 7.560001 1
16.87428 50.62284 7.560001 1
20.62411 50.62284 7.560001 1
5.624748 54.37269 7.560001 1
9.374588 54.37269 7.560001 1
13.12443 54.37269 7.560001 1
16.87428 54.37269 7.560001 1
20.62411 54.37269 7.560001 1
5.624748 58.12252 7.560001 1
9.374588 58.12252 7.560001 1
13.12443 58.12252 7.560001 1
16.87428 58.12252 7.560001 1
20.62411 58.12252 7.560001 1
9.374588 50.62284 11.56 1
13.12443 50.62284 11.56 1
5.624748 54.37269 11.56 1
9.374588 54.37269 11.56 1
13.12443 54.37269 11.56 1
16.87428 54.37269 11.56 1
20.62411 54.37269 11.56 1
5.624748 58.12252 11.56 1
9.374588 58.12252 11.56 1
13.12443 58.12252 11.56 1
16.87428 58.12252 11.56 1
20.62411 58.12252 11.56 1
5.624748 61.87237 11.56 1
9.374588 61.87237 11.56 1
13.12443 61.87237 11.56 1
16.87428 61.87237 11.56 1
20.62411 61.87237 11.56 1
5.624748 54.37269 15.56 1
9.374588 54.37269 15.56 1
13.12443 54.37269 15.56 1
16.87428 54.37269 15.56 1
5.624748 58.12252 15.56 1
9.374588 58.12252 15.56 1
13.12443 58.12252 15.56 1
16.87428 58.12252 15.56 1
20.62411 58.12252 15.56 1
5.624748 61.87237 15.56 1
9.374588 61.87237 15.56 1
13.12443 61.87237 15.56 1
16.87428 61.87237 15.56 1
20.62411 61.87237 15.56 1
9.374588 65.6222 15.56 1
13.12443 65.6222 15.56 1
16.87428 65.6222 15.56 1
20.62411 65.6222 15.56 1
13.12443 54.37269 19.56 1
5.624748 58.12252 19.56 1
9.374588 58.12252 19.56 1
13.12443 58.12252 19.56 1
16.87428 58.12252 19.56 1
20.62411 58.12252 19.56 1
5.624748 61.87237 19.56 1
9.374588 61.87237 19.56 1
13.12443 61.87237 19.56 1
16.87428 61.87237 19.56 1
20.62411 61.87237 19.56 1
5.624748 65.6222 19.56 1
9.374588 65.6222 19.56 1
13.12443 65.6222 19.56 1
16.87428 65.6222 19.56 1
5.624748 61.87237 23.56 1
9.374588 61.87237 23.56 1
13.12443 61.87237 23.56 1
16.87428 61.87237 23.56 1
5.624748 65.6222 23.56 1
9.374588 65.6222 23.56 1
13.12443 65.6222 23.56 1
16.87428 65.6222 23.56 1
9.374588 69.37205 23.56 1
13.12443 69.37205 23.56 1
9.374588 65.6222 27.56 1
9.374588 69.37205 27.56 1
