-16.8743 39.37331 -4.439999 1
-13.12446 39.37331 -4.439999 1
-9.374611 39.37331 -4.439999 1
-16.8743 43.12316 -4.439999 1
-13.12446 43.12316 -4.439999 1
-9.374611 43.12316 -4.439999 1
-16.8743 46.87299 -4.439999 1
-13.12446 46.87299 -4.439999 1
-9.374611 46.87299 -4.439999 1
-16.8743 50.62284 -4.439999 1
-13.12446 50.62284 -4.439999 1
-9.374611 50.62284 -4.439999 1
-16.8743 54.37269 -4.439999 1
-13.12446 54.37269 -4.439999 1
-9.374611 54.37269 -4.439999 1
-20.62414 39.37331 -0.439999 1
-16.8743 39.37331 -0.439999 1
-13.12446 39.37331 -0.439999 1
-9.374611 39.37331 -0.439999 1
-24.37398 43.12316 -0.439999 1
-20.62414 43.12316 -0.439999 1
-16.8743 43.12316 -0.439999 1
-13.12446 43.12316 -0.439999 1
-9.374611 43.12316 -0.439999 1
-5.624771 43.12316 -0.439999 1
-24.37398 46.87299 -0.439999 1
-20.62414 46.87299 -0.439999 1
-16.8743 46.87299 -0.439999 1
-13.12446 46.87299 -0.439999 1
-9.374611 46.87299 -0.439999 1
-5.624771 46.87299 -0.439999 1
-24.37398 50.62284 -0.439999 1
-20.62414 50.62284 -0.439999 1
-16.8743 50.62284 -0.439999 1
-13.12446 50.62284 -0.439999 1
-9.374611 50.62284 -0.439999 1
-5.624771 50.62284 -0.439999 1
-24.37398 54.37269 -0.439999 1
-20.62414 54.37269 -0.439999 1
-16.8743 54.37269 -0.439999 1
-13.12446 54.37269 -0.439999 1
-9.374611 54.37269 -0.439999 1
-5.624771 54.37269 -0.439999 1
-24.37398 58.12252 -0.439999 1
-20.62414 58.12252 -0.439999 1
-16.8743 58.12252 -0.439999 1
-13.12446 58.12252 -0.439999 1
-9.374611 58.12252 -0.439999 1
-20.62414 61.87237 -0.439999 1
-24.37398 43.12316 3.560001 1
-20.62414 43.12316 3.560001 1
-16.8743 43.12316 3.560001 1
-13.12446 43.12316 3.560001 1
-9.374611 43.12316 3.560001 1
-5.624771 43.12316 3.560001 1
-24.37398 46.87299 3.560001 1
-20.62414 46.87299 3.560001 1
-16.8743 46.87299 3.560001 1
-13.12446 46.87299 3.560001 1
-9.374611 46.87299 3.560001 1
-5.624771 46.87299 3.560001 1
-24.37398 50.62284 3.560001 1
-20.62414 50.62284 3.560001 1
-16.8743 50.62284 3.560001 1
-13.12446 50.62284 3.560001 1
-9.374611 50.62284 3.560001 1
-5.624771 50.62284 3.560001 1
-1.874931 50.62284 3.560001 1
-24.37398 54.37269 3.560001 1
-20.62414 54.37269 3.560001 1
-16.8743 54.37269 3.560001 1
-13.12446 54.37269 3.560001 1
-9.374611 54.37269 3.560001 1
-5.624771 54.37269 3.560001 1
-24.37398 58.12252 3.560001 1
-20.62414 58.12252 3.560001 1
-16.8743 58.12252 3.560001 1
-13.12446 58.12252 3.560001 1
-9.374611 58.12252 3.560001 1
-5.624771 58.12252 3.560001 1
-24.37398 61.87237 3.560001 1
-20.62414 61.87237 3.560001 1
-16.8743 61.87237 3.560001 1
-20.62414 43.12316 7.560001 1
-16.8743 43.12316 7.560001 1
-13.12446 43.12316 7.560001 1
-9.374611 43.12316 7.560001 1
-20.62414 46.87299 7.560001 1
-16.8743 46.87299 7.560001 1
-13.12446 46.87299 7.560001 1
-9.374611 46.87299 7.560001 1
-24.37398 50.62284 7.560001 1
-20.62414 50.62284 7.560001 1
-16.8743 50.62284 7.560001 1
-13.12446 50.62284 7.560001 1
-9.374611 50.62284 7.560001 1
-5.624771 50.62284 7.560001 1
-28.12382 54.37269 7.560001 1
-24.37398 54.37269 7.560001 1
-20.62414 54.37269 7.560001 1
-16.8743 54.37269 7.560001 1
-13.12446 54.37269 7.560001 1
-9.374611 54.37269 7.560001 1
-5.624771 54.37269 7.560001 1
-28.12382 58.12252 7.560001 1
-24.37398 58.12252 7.560001 1
-20.62414 58.12252 7.560001 1
-16.8743 58.12252 7.560001 1
-13.12446 58.12252 7.560001 1
-9.374611 58.12252 7.560001 1
-5.624771 58.12252 7.560001 1
-24.37398 61.87237 7.560001 1
-20.62414 61.87237 7.560001 1
-16.8743 61.87237 7.560001 1
-13.12446 61.87237 7.560001 1
-16.8743 46.87299 11.56 1
-13.12446 46.87299 11.56 1
-24.37398 50.62284 11.56 1
-20.62414 50.62284 11.56 1
-16.8743 50.62284 11.56 1
-13.12446 50.62284 11.56 1
-9.374611 50.62284 11.56 1
-5.624771 50.62284 11.56 1
-24.37398 54.37269 11.56 1
-20.62414 54.37269 11.56 1
-16.8743 54.37269 11.56 1
-13.12446 54.37269 11.56 1
-9.374611 54.37269 11.56 1
-5.624771 54.37269 11.56 1
-28.12382 58.12252 11.56 1
-24.37398 58.12252 11.56 1
-20.62414 58.12252 11.56 1
-16.8743 58.12252 11.56 1
-13.12446 58.12252 11.56 1
-9.374611 58.12252 11.56 1
-5.624771 58.12252 11.56 1
-24.37398 61.87237 11.56 1
-20.62414 61.87237 11.56 1
-16.8743 61.87237 11.56 1
-13.12446 61.87237 11.56 1
-24.37398 65.6222 11.56 1
-20.62414 65.6222 11.56 1
-20.62414 50.62284 15.56 1
-16.8743 50.62284 15.56 1
-13.12446 50.62284 15.56 1
-9.374611 50.62284 15.56 1
-24.37398 54.37269 15.56 1
-20.62414 54.37269 15.56 1
-16.8743 54.37269 15.56 1
-13.12446 54.37269 15.56 1
-9.374611 54.37269 15.56 1
-5.624771 54.37269 15.56 1
-28.12382 58.12252 15.56 1
-24.37398 58.12252 15.56 1
-20.62414 58.12252 15.56 1
-16.8743 58.12252 15.56 1
-13.12446 58.12252 15.56 1
-9.374611 58.12252 15.56 1
-5.624771 58.12252 15.56 1
-28.12382 61.87237 15.56 1
-24.37398 61.87237 15.56 1
-20.62414 61.87237 15.56 1
-16.8743 61.87237 15.56 1
-13.12446 61.87237 15.56 1
-9.374611 61.87237 15.56 1
-24.37398 65.6222 15.56 1
-20.62414 65.6222 15.56 1
-16.8743 65.6222 15.56 1
-13.12446 65.6222 15.56 1
-20.62414 50.62284 19.56 1
-16.8743 50.62284 19.56 1
-13.12446 50.62284 19.56 1
-24.37398 54.37269 19.56 1
-20.62414 54.37269 19.56 1
-16.8743 54.37269 19.56 1
-13.12446 54.37269 19.56 1
-9.374611 54.37269 19.56 1
-24.37398 58.12252 19.56 1
-20.62414 58.12252 19.56 1
-16.8743 58.12252 19.56 1
-13.12446 58.12252 19.56 1
-9.374611 58.12252 19.56 1
-5.624771 58.12252 19.56 1
-24.37398 61.87237 19.56 1
-20.62414 61.87237 19.56 1
-16.8743 61.87237 19.56 1
-13.12446 61.87237 19.56 1
-9.374611 61.87237 19.56 1
-24.37398 65.6222 19.56 1
-20.62414 65.6222 19.56 1
-16.8743 65.6222 19.56 1
-13.12446 65.6222 19.56 1
-20.62414 54.37269 23.56 1
-16.8743 54.37269 23.56 1
-13.12446 54.37269 23.56 1
-24.37398 58.12252 23.56 1
-20.62414 58.12252 23.56 1
-16.8743 58.12252 23.56 1
-13.12446 58.12252 23.56 1
-20.62414 61.87237 23.56 1
-16.8743 61.87237 23.56 1
-13.12446 61.87237 23.56 1
-9.374611 61.87237 23.56 1
-20.62414 65.6222 23.56 1
-16.8743 65.6222 23.56 1
-13.12446 65.6222 23.56 1
-20.62414 69.37205 23.56 1
-16.8743 69.37205 23.56 1
-20.62414 61.87237 27.56 1
-16.8743 61.87237 27.56 1
-13.12446 61.87237 27.56 1
-20.62414 65.6222 27.56 1
-16.8743 65.6222 27.56 1
-13.12446 65.6222 27.56 1
-16.8743 69.37205 27.56 1
-16.8743 65.6222 31.56 1
