31.87363 39.37331 -24.44 1
35.62348 39.37331 -24.44 1
28.1238 43.12316 -24.44 1
31.87363 43.12316 -24.44 1
35.62348 43.12316 -24.44 1
39.37331 43.12316 -24.44 1
28.1238 46.87299 -24.44 1
31.87363 46.87299 -24.44 1
35.62348 46.87299 -24.44 1
39.37331 46.87299 -24.44 1
31.87363 50.62284 -24.44 1
35.62348 50.62284 -24.44 1
39.37331 50.62284 -24.44 1
31.87363 54.37269 -24.44 1
35.62348 54.37269 -24.44 1
39.37331 54.37269 -24.44 1
35.62348 58.12252 -24.44 1
39.37331 58.12252 -24.44 1
35.62348 61.87237 -24.44 1
39.37331 61.87237 -24.44 1
35.62348 65.6222 -24.44 1
39.37331 65.6222 -24.44 1
43.12316 65.6222 -24.44 1
39.37331 69.37205 -24.44 1
31.87363 39.37331 -20.44 1
35.62348 39.37331 -20.44 1
28.1238 43.12316 -20.44 1
31.87363 43.12316 -20.44 1
35.62348 43.12316 -20.44 1
39.37331 43.12316 -20.44 1
43.12316 43.12316 -20.44 1
28.1238 46.87299 -20.44 1
31.87363 46.87299 -20.44 1
35.62348 46.87299 -20.44 1
39.37331 46.87299 -20.44 1
43.12316 46.87299 -20.44 1
46.87299 46.87299 -20.44 1
28.1238 50.62284 -20.44 1
31.87363 50.62284 -20.44 1
35.62348 50.62284 -20.44 1
39.37331 50.62284 -20.44 1
43.12316 50.62284 -20.44 1
46.87299 50.62284 -20.44 1
28.1238 54.37269 -20.44 1
31.87363 54.37269 -20.44 1
35.62348 54.37269 -20.44 1
39.37331 54.37269 -20.44 1
43.12316 54.37269 -20.44 1
46.87299 54.37269 -20.44 1
31.87363 58.12252 -20.44 1
35.62348 58.12252 -20.44 1
39.37331 58.12252 -20.44 1
43.12316 58.12252 -20.44 1
46.87299 58.12252 -20.44 1
31.87363 61.87237 -20.44 1
35.62348 61.87237 -20.44 1
39.37331 61.87237 -20.44 1
43.12316 61.87237 -20.44 1
46.87299 61.87237 -20.44 1
31.87363 65.6222 -20.44 1
35.62348 65.6222 -20.44 1
39.37331 65.6222 -20.44 1
43.12316 65.6222 -20.44 1
46.87299 65.6222 -20.44 1
35.62348 69.37205 -20.44 1
39.37331 69.37205 -20.44 1
43.12316 69.37205 -20.44 1
35.62348 73.12188 -20.44 1
39.37331 73.12188 -20.44 1
35.62348 76.87173 -20.44 1
39.37331 76.87173 -20.44 1
31.87363 43.12316 -16.44 1
35.62348 43.12316 -16.44 1
39.37331 43.12316 -16.44 1
43.12316 43.12316 -16.44 1
28.1238 46.87299 -16.44 1
31.87363 46.87299 -16.44 1
35.62348 46.87299 -16.44 1
39.37331 46.87299 -16.44 1
43.12316 46.87299 -16.44 1
46.87299 46.87299 -16.44 1
28.1238 50.62284 -16.44 1
31.87363 50.62284 -16.44 1
35.62348 50.62284 -16.44 1
39.37331 50.62284 -16.44 1
43.12316 50.62284 -16.44 1
46.87299 50.62284 -16.44 1
28.1238 54.37269 -16.44 1
31.87363 54.37269 -16.44 1
35.62348 54.37269 -16.44 1
39.37331 54.37269 -16.44 1
43.12316 54.37269 -16.44 1
46.87299 54.37269 -16.44 1
50.62284 54.37269 -16.44 1
28.1238 58.12252 -16.44 1
31.87363 58.12252 -16.44 1
35.62348 58.12252 -16.44 1
39.37331 58.12252 -16.44 1
43.12316 58.12252 -16.44 1
46.87299 58.12252 -16.44 1
50.62284 58.12252 -16.44 1
31.87363 61.87237 -16.44 1
35.62348 61.87237 -16.44 1
39.37331 61.87237 -16.44 1
43.12316 61.87237 -16.44 1
46.87299 61.87237 -16.44 1
50.62284 61.87237 -16.44 1
31.87363 65.6222 -16.44 1
35.62348 65.6222 -16.44 1
39.37331 65.6222 -16.44 1
43.12316 65.6222 -16.44 1
46.87299 65.6222 -16.44 1
50.62284 65.6222 -16.44 1
31.87363 69.37205 -16.44 1
35.62348 69.37205 -16.44 1
39.37331 69.37205 -16.44 1
43.12316 69.37205 -16.44 1
46.87299 69.37205 -16.44 1
31.87363 73.12188 -16.44 1
35.62348 73.12188 -16.44 1
39.37331 73.12188 -16.44 1
43.12316 73.12188 -16.44 1
46.87299 73.12188 -16.44 1
31.87363 76.87173 -16.44 1
35.62348 76.87173 -16.44 1
39.37331 76.87173 -16.44 1
43.12316 76.87173 -16.44 1
46.87299 76.87173 -16.44 1
35.62348 80.62157 -16.44 1
39.37331 80.62157 -16.44 1
35.62348 46.87299 -12.44 1
39.37331 46.87299 -12.44 1
43.12316 46.87299 -12.44 1
28.1238 50.62284 -12.44 1
31.87363 50.62284 -12.44 1
35.62348 50.62284 -12.44 1
39.37331 50.62284 -12.44 1
43.12316 50.62284 -12.44 1
46.87299 50.62284 -12.44 1
28.1238 54.37269 -12.44 1
31.87363 54.37269 -12.44 1
35.62348 54.37269 -12.44 1
39.37331 54.37269 -12.44 1
43.12316 54.37269 -12.44 1
46.87299 54.37269 -12.44 1
50.62284 54.37269 -12.44 1
31.87363 58.12252 -12.44 1
35.62348 58.12252 -12.44 1
39.37331 58.12252 -12.44 1
43.12316 58.12252 -12.44 1
46.87299 58.12252 -12.44 1
50.62284 58.12252 -12.44 1
54.37269 58.12252 -12.44 1
31.87363 61.87237 -12.44 1
35.62348 61.87237 -12.44 1
39.37331 61.87237 -12.44 1
43.12316 61.87237 -12.44 1
46.87299 61.87237 -12.44 1
50.62284 61.87237 -12.44 1
54.37269 61.87237 -12.44 1
31.87363 65.6222 -12.44 1
35.62348 65.6222 -12.44 1
39.37331 65.6222 -12.44 1
43.12316 65.6222 -12.44 1
46.87299 65.6222 -12.44 1
50.62284 65.6222 -12.44 1
54.37269 65.6222 -12.44 1
31.87363 69.37205 -12.44 1
35.62348 69.37205 -12.44 1
39.37331 69.37205 -12.44 1
43.12316 69.37205 -12.44 1
46.87299 69.37205 -12.44 1
50.62284 69.37205 -12.44 1
28.1238 73.12188 -12.44 1
31.87363 73.12188 -12.44 1
35.62348 73.12188 -12.44 1
39.37331 73.12188 -12.44 1
43.12316 73.12188 -12.44 1
46.87299 73.12188 -12.44 1
50.62284 73.12188 -12.44 1
28.1238 76.87173 -12.44 1
31.87363 76.87173 -12.44 1
35.62348 76.87173 -12.44 1
39.37331 76.87173 -12.44 1
43.12316 76.87173 -12.44 1
46.87299 76.87173 -12.44 1
28.1238 80.62157 -12.44 1
31.87363 80.62157 -12.44 1
35.62348 80.62157 -12.44 1
39.37331 80.62157 -12.44 1
43.12316 80.62157 -12.44 1
46.87299 80.62157 -12.44 1
35.62348 84.37141 -12.44 1
39.37331 50.62284 -8.439999 1
43.12316 50.62284 -8.439999 1
46.87299 50.62284 -8.439999 1
50.62284 50.62284 -8.439999 1
35.62348 54.37269 -8.439999 1
39.37331 54.37269 -8.439999 1
43.12316 54.37269 -8.439999 1
46.87299 54.37269 -8.439999 1
50.62284 54.37269 -8.439999 1
54.37269 54.37269 -8.439999 1
31.87363 58.12252 -8.439999 1
35.62348 58.12252 -8.439999 1
39.37331 58.12252 -8.439999 1
43.12316 58.12252 -8.439999 1
46.87299 58.12252 -8.439999 1
50.62284 58.12252 -8.439999 1
54.37269 58.12252 -8.439999 1
31.87363 61.87237 -8.439999 1
35.62348 61.87237 -8.439999 1
39.37331 61.87237 -8.439999 1
43.12316 61.87237 -8.439999 1
46.87299 61.87237 -8.439999 1
50.62284 61.87237 -8.439999 1
54.37269 61.87237 -8.439999 1
31.87363 65.6222 -8.439999 1
35.62348 65.6222 -8.439999 1
39.37331 65.6222 -8.439999 1
43.12316 65.6222 -8.439999 1
46.87299 65.6222 -8.439999 1
50.62284 65.6222 -8.439999 1
54.37269 65.6222 -8.439999 1
28.1238 69.37205 -8.439999 1
31.87363 69.37205 -8.439999 1
35.62348 69.37205 -8.439999 1
39.37331 69.37205 -8.439999 1
43.12316 69.37205 -8.439999 1
46.87299 69.37205 -8.439999 1
50.62284 69.37205 -8.439999 1
54.37269 69.37205 -8.439999 1
28.1238 73.12188 -8.439999 1
31.87363 73.12188 -8.439999 1
35.62348 73.12188 -8.439999 1
39.37331 73.12188 -8.439999 1
43.12316 73.12188 -8.439999 1
46.87299 73.12188 -8.439999 1
50.62284 73.12188 -8.439999 1
28.1238 76.87173 -8.439999 1
31.87363 76.87173 -8.439999 1
35.62348 76.87173 -8.439999 1
39.37331 76.87173 -8.439999 1
43.12316 76.87173 -8.439999 1
46.87299 76.87173 -8.439999 1
50.62284 76.87173 -8.439999 1
28.1238 80.62157 -8.439999 1
31.87363 80.62157 -8.439999 1
35.62348 80.62157 -8.439999 1
39.37331 80.62157 -8.439999 1
43.12316 80.62157 -8.439999 1
46.87299 80.62157 -8.439999 1
31.87363 84.37141 -8.439999 1
35.62348 84.37141 -8.439999 1
39.37331 84.37141 -8.439999 1
39.37331 50.62284 -4.439999 1
43.12316 50.62284 -4.439999 1
46.87299 50.62284 -4.439999 1
50.62284 50.62284 -4.439999 1
54.37269 50.62284 -4.439999 1
58.12252 50.62284 -4.439999 1
35.62348 54.37269 -4.439999 1
39.37331 54.37269 -4.439999 1
43.12316 54.37269 -4.439999 1
46.87299 54.37269 -4.439999 1
50.62284 54.37269 -4.439999 1
54.37269 54.37269 -4.439999 1
58.12252 54.37269 -4.439999 1
31.87363 58.12252 -4.439999 1
35.62348 58.12252 -4.439999 1
39.37331 58.12252 -4.439999 1
43.12316 58.12252 -4.439999 1
46.87299 58.12252 -4.439999 1
50.62284 58.12252 -4.439999 1
54.37269 58.12252 -4.439999 1
58.12252 58.12252 -4.439999 1
31.87363 61.87237 -4.439999 1
35.62348 61.87237 -4.439999 1
39.37331 61.87237 -4.439999 1
43.12316 61.87237 -4.439999 1
46.87299 61.87237 -4.439999 1
50.62284 61.87237 -4.439999 1
54.37269 61.87237 -4.439999 1
58.12252 61.87237 -4.439999 1
31.87363 65.6222 -4.439999 1
35.62348 65.6222 -4.439999 1
39.37331 65.6222 -4.439999 1
43.12316 65.6222 -4.439999 1
46.87299 65.6222 -4.439999 1
50.62284 65.6222 -4.439999 1
54.37269 65.6222 -4.439999 1
31.87363 69.37205 -4.439999 1
35.62348 69.37205 -4.439999 1
39.37331 69.37205 -4.439999 1
43.12316 69.37205 -4.439999 1
46.87299 69.37205 -4.439999 1
50.62284 69.37205 -4.439999 1
54.37269 69.37205 -4.439999 1
28.1238 73.12188 -4.439999 1
31.87363 73.12188 -4.439999 1
35.62348 73.12188 -4.439999 1
39.37331 73.12188 -4.439999 1
43.12316 73.12188 -4.439999 1
46.87299 73.12188 -4.439999 1
50.62284 73.12188 -4.439999 1
28.1238 76.87173 -4.439999 1
31.87363 76.87173 -4.439999 1
35.62348 76.87173 -4.439999 1
39.37331 76.87173 -4.439999 1
43.12316 76.87173 -4.439999 1
46.87299 76.87173 -4.439999 1
50.62284 76.87173 -4.439999 1
24.37395 80.62157 -4.439999 1
28.1238 80.62157 -4.439999 1
31.87363 80.62157 -4.439999 1
35.62348 80.62157 -4.439999 1
39.37331 80.62157 -4.439999 1
43.12316 80.62157 -4.439999 1
46.87299 80.62157 -4.439999 1
50.62284 80.62157 -4.439999 1
24.37395 84.37141 -4.439999 1
28.1238 84.37141 -4.439999 1
31.87363 84.37141 -4.439999 1
35.62348 84.37141 -4.439999 1
39.37331 84.37141 -4.439999 1
43.12316 84.37141 -4.439999 1
46.87299 84.37141 -4.439999 1
28.1238 88.12125 -4.439999 1
31.87363 88.12125 -4.439999 1
35.62348 88.12125 -4.439999 1
50.62284 50.62284 -0.439999 1
54.37269 50.62284 -0.439999 1
35.62348 54.37269 -0.439999 1
39.37331 54.37269 -0.439999 1
43.12316 54.37269 -0.439999 1
46.87299 54.37269 -0.439999 1
50.62284 54.37269 -0.439999 1
54.37269 54.37269 -0.439999 1
58.12252 54.37269 -0.439999 1
35.62348 58.12252 -0.439999 1
39.37331 58.12252 -0.439999 1
43.12316 58.12252 -0.439999 1
46.87299 58.12252 -0.439999 1
50.62284 58.12252 -0.439999 1
54.37269 58.12252 -0.439999 1
58.12252 58.12252 -0.439999 1
31.87363 61.87237 -0.439999 1
35.62348 61.87237 -0.439999 1
39.37331 61.87237 -0.439999 1
43.12316 61.87237 -0.439999 1
46.87299 61.87237 -0.439999 1
50.62284 61.87237 -0.439999 1
54.37269 61.87237 -0.439999 1
58.12252 61.87237 -0.439999 1
31.87363 65.6222 -0.439999 1
35.62348 65.6222 -0.439999 1
39.37331 65.6222 -0.439999 1
43.12316 65.6222 -0.439999 1
46.87299 65.6222 -0.439999 1
50.62284 65.6222 -0.439999 1
54.37269 65.6222 -0.439999 1
58.12252 65.6222 -0.439999 1
28.1238 69.37205 -0.439999 1
31.87363 69.37205 -0.439999 1
35.62348 69.37205 -0.439999 1
39.37331 69.37205 -0.439999 1
43.12316 69.37205 -0.439999 1
46.87299 69.37205 -0.439999 1
50.62284 69.37205 -0.439999 1
54.37269 69.37205 -0.439999 1
28.1238 73.12188 -0.439999 1
31.87363 73.12188 -0.439999 1
35.62348 73.12188 -0.439999 1
39.37331 73.12188 -0.439999 1
43.12316 73.12188 -0.439999 1
46.87299 73.12188 -0.439999 1
50.62284 73.12188 -0.439999 1
54.37269 73.12188 -0.439999 1
28.1238 76.87173 -0.439999 1
31.87363 76.87173 -0.439999 1
35.62348 76.87173 -0.439999 1
39.37331 76.87173 -0.439999 1
43.12316 76.87173 -0.439999 1
46.87299 76.87173 -0.439999 1
50.62284 76.87173 -0.439999 1
24.37395 80.62157 -0.439999 1
28.1238 80.62157 -0.439999 1
31.87363 80.62157 -0.439999 1
35.62348 80.62157 -0.439999 1
39.37331 80.62157 -0.439999 1
43.12316 80.62157 -0.439999 1
46.87299 80.62157 -0.439999 1
50.62284 80.62157 -0.439999 1
24.37395 84.37141 -0.439999 1
28.1238 84.37141 -0.439999 1
31.87363 84.37141 -0.439999 1
35.62348 84.37141 -0.439999 1
39.37331 84.37141 -0.439999 1
43.12316 84.37141 -0.439999 1
46.87299 84.37141 -0.439999 1
28.1238 88.12125 -0.439999 1
31.87363 88.12125 -0.439999 1
35.62348 88.12125 -0.439999 1
39.37331 54.37269 3.560001 1
43.12316 54.37269 3.560001 1
46.87299 54.37269 3.560001 1
50.62284 54.37269 3.560001 1
54.37269 54.37269 3.560001 1
35.62348 58.12252 3.560001 1
39.37331 58.12252 3.560001 1
43.12316 58.12252 3.560001 1
46.87299 58.12252 3.560001 1
50.62284 58.12252 3.560001 1
54.37269 58.12252 3.560001 1
58.12252 58.12252 3.560001 1
31.87363 61.87237 3.560001 1
35.62348 61.87237 3.560001 1
39.37331 61.87237 3.560001 1
43.12316 61.87237 3.560001 1
46.87299 61.87237 3.560001 1
50.62284 61.87237 3.560001 1
54.37269 61.87237 3.560001 1
58.12252 61.87237 3.560001 1
31.87363 65.6222 3.560001 1
35.62348 65.6222 3.560001 1
39.37331 65.6222 3.560001 1
43.12316 65.6222 3.560001 1
46.87299 65.6222 3.560001 1
50.62284 65.6222 3.560001 1
54.37269 65.6222 3.560001 1
28.1238 69.37205 3.560001 1
31.87363 69.37205 3.560001 1
35.62348 69.37205 3.560001 1
39.37331 69.37205 3.560001 1
43.12316 69.37205 3.560001 1
46.87299 69.37205 3.560001 1
50.62284 69.37205 3.560001 1
54.37269 69.37205 3.560001 1
28.1238 73.12188 3.560001 1
31.87363 73.12188 3.560001 1
35.62348 73.12188 3.560001 1
39.37331 73.12188 3.560001 1
43.12316 73.12188 3.560001 1
46.87299 73.12188 3.560001 1
50.62284 73.12188 3.560001 1
54.37269 73.12188 3.560001 1
28.1238 76.87173 3.560001 1
31.87363 76.87173 3.560001 1
35.62348 76.87173 3.560001 1
39.37331 76.87173 3.560001 1
43.12316 76.87173 3.560001 1
46.87299 76.87173 3.560001 1
50.62284 76.87173 3.560001 1
28.1238 80.62157 3.560001 1
31.87363 80.62157 3.560001 1
35.62348 80.62157 3.560001 1
39.37331 80.62157 3.560001 1
43.12316 80.62157 3.560001 1
46.87299 80.62157 3.560001 1
28.1238 84.37141 3.560001 1
31.87363 84.37141 3.560001 1
35.62348 84.37141 3.560001 1
39.37331 84.37141 3.560001 1
43.12316 84.37141 3.560001 1
28.1238 88.12125 3.560001 1
31.87363 88.12125 3.560001 1
35.62348 88.12125 3.560001 1
35.62348 58.12252 7.560001 1
39.37331 58.12252 7.560001 1
43.12316 58.12252 7.560001 1
46.87299 58.12252 7.560001 1
50.62284 58.12252 7.560001 1
54.37269 58.12252 7.560001 1
31.87363 61.87237 7.560001 1
35.62348 61.87237 7.560001 1
39.37331 61.87237 7.560001 1
43.12316 61.87237 7.560001 1
46.87299 61.87237 7.560001 1
50.62284 61.87237 7.560001 1
54.37269 61.87237 7.560001 1
31.87363 65.6222 7.560001 1
35.62348 65.6222 7.560001 1
39.37331 65.6222 7.560001 1
43.12316 65.6222 7.560001 1
46.87299 65.6222 7.560001 1
50.62284 65.6222 7.560001 1
54.37269 65.6222 7.560001 1
28.1238 69.37205 7.560001 1
31.87363 69.37205 7.560001 1
35.62348 69.37205 7.560001 1
39.37331 69.37205 7.560001 1
43.12316 69.37205 7.560001 1
46.87299 69.37205 7.560001 1
50.62284 69.37205 7.560001 1
54.37269 69.37205 7.560001 1
28.1238 73.12188 7.560001 1
31.87363 73.12188 7.560001 1
35.62348 73.12188 7.560001 1
39.37331 73.12188 7.560001 1
43.12316 73.12188 7.560001 1
46.87299 73.12188 7.560001 1
50.62284 73.12188 7.560001 1
28.1238 76.87173 7.560001 1
31.87363 76.87173 7.560001 1
35.62348 76.87173 7.560001 1
39.37331 76.87173 7.560001 1
43.12316 76.87173 7.560001 1
46.87299 76.87173 7.560001 1
50.62284 76.87173 7.560001 1
28.1238 80.62157 7.560001 1
31.87363 80.62157 7.560001 1
35.62348 80.62157 7.560001 1
39.37331 80.62157 7.560001 1
43.12316 80.62157 7.560001 1
46.87299 80.62157 7.560001 1
28.1238 84.37141 7.560001 1
31.87363 84.37141 7.560001 1
35.62348 84.37141 7.560001 1
39.37331 84.37141 7.560001 1
31.87363 88.12125 7.560001 1
35.62348 88.12125 7.560001 1
39.37331 58.12252 11.56 1
43.12316 58.12252 11.56 1
46.87299 58.12252 11.56 1
50.62284 58.12252 11.56 1
35.62348 61.87237 11.56 1
39.37331 61.87237 11.56 1
43.12316 61.87237 11.56 1
46.87299 61.87237 11.56 1
50.62284 61.87237 11.56 1
54.37269 61.87237 11.56 1
31.87363 65.6222 11.56 1
35.62348 65.6222 11.56 1
39.37331 65.6222 11.56 1
43.12316 65.6222 11.56 1
46.87299 65.6222 11.56 1
50.62284 65.6222 11.56 1
54.37269 65.6222 11.56 1
28.1238 69.37205 11.56 1
31.87363 69.37205 11.56 1
35.62348 69.37205 11.56 1
39.37331 69.37205 11.56 1
43.12316 69.37205 11.56 1
46.87299 69.37205 11.56 1
50.62284 69.37205 11.56 1
28.1238 73.12188 11.56 1
31.87363 73.12188 11.56 1
35.62348 73.12188 11.56 1
39.37331 73.12188 11.56 1
43.12316 73.12188 11.56 1
46.87299 73.12188 11.56 1
50.62284 73.12188 11.56 1
28.1238 76.87173 11.56 1
31.87363 76.87173 11.56 1
35.62348 76.87173 11.56 1
39.37331 76.87173 11.56 1
43.12316 76.87173 11.56 1
46.87299 76.87173 11.56 1
24.37395 80.62157 11.56 1
28.1238 80.62157 11.56 1
31.87363 80.62157 11.56 1
35.62348 80.62157 11.56 1
39.37331 80.62157 11.56 1
43.12316 80.62157 11.56 1
28.1238 84.37141 11.56 1
31.87363 84.37141 11.56 1
35.62348 84.37141 11.56 1
39.37331 84.37141 11.56 1
31.87363 88.12125 11.56 1
31.87363 65.6222 15.56 1
35.62348 65.6222 15.56 1
39.37331 65.6222 15.56 1
43.12316 65.6222 15.56 1
46.87299 65.6222 15.56 1
31.87363 69.37205 15.56 1
35.62348 69.37205 15.56 1
39.37331 69.37205 15.56 1
43.12316 69.37205 15.56 1
46.87299 69.37205 15.56 1
31.87363 73.12188 15.56 1
35.62348 73.12188 15.56 1
39.37331 73.12188 15.56 1
43.12316 73.12188 15.56 1
46.87299 73.12188 15.56 1
31.87363 76.87173 15.56 1
35.62348 76.87173 15.56 1
39.37331 76.87173 15.56 1
43.12316 76.87173 15.56 1
28.1238 80.62157 15.56 1
31.87363 80.62157 15.56 1
35.62348 80.62157 15.56 1
39.37331 80.62157 15.56 1
28.1238 84.37141 15.56 1
31.87363 84.37141 15.56 1
35.62348 84.37141 15.56 1
39.37331 84.37141 15.56 1
31.87363 88.12125 15.56 1
35.62348 69.37205 19.56 1
39.37331 69.37205 19.56 1
35.62348 73.12188 19.56 1
39.37331 73.12188 19.56 1
35.62348 76.87173 19.56 1
39.37331 76.87173 19.56 1
31.87363 80.62157 19.56 1
35.62348 80.62157 19.56 1
39.37331 80.62157 19.56 1
31.87363 84.37141 19.56 1
35.62348 84.37141 19.56 1
35.62348 76.87173 23.56 1
