54.37269 35.62348 -4.439999 1
54.37269 39.37331 -4.439999 1
58.12252 28.1238 -0.439999 1
50.62284 31.87363 -0.439999 1
54.37269 31.87363 -0.439999 1
58.12252 31.87363 -0.439999 1
61.87237 31.87363 -0.439999 1
46.87299 35.62348 -0.439999 1
50.62284 35.62348 -0.439999 1
54.37269 35.62348 -0.439999 1
58.12252 35.62348 -0.439999 1
61.87237 35.62348 -0.439999 1
46.87299 39.37331 -0.439999 1
50.62284 39.37331 -0.439999 1
54.37269 39.37331 -0.439999 1
58.12252 39.37331 -0.439999 1
61.87237 39.37331 -0.439999 1
46.87299 43.12316 -0.439999 1
50.62284 43.12316 -0.439999 1
54.37269 43.12316 -0.439999 1
58.12252 43.12316 -0.439999 1
61.87237 43.12316 -0.439999 1
50.62284 46.87299 -0.439999 1
54.37269 46.87299 -0.439999 1
58.12252 46.87299 -0.439999 1
61.87237 46.87299 -0.439999 1
54.37269 50.62284 -0.439999 1
58.12252 50.62284 -0.439999 1
58.12252 28.1238 3.560001 1
61.87237 28.1238 3.560001 1
65.6222 28.1238 3.560001 1
50.62284 31.87363 3.560001 1
54.37269 31.87363 3.560001 1
58.12252 31.87363 3.560001 1
61.87237 31.87363 3.560001 1
65.6222 31.87363 3.560001 1
46.87299 35.62348 3.560001 1
50.62284 35.62348 3.560001 1
54.37269 35.62348 3.560001 1
58.12252 35.62348 3.560001 1
61.87237 35.62348 3.560001 1
65.6222 35.62348 3.560001 1
43.12316 39.37331 3.560001 1
46.87299 39.37331 3.560001 1
50.62284 39.37331 3.560001 1
54.37269 39.37331 3.560001 1
58.12252 39.37331 3.560001 1
61.87237 39.37331 3.560001 1
43.12316 43.12316 3.560001 1
46.87299 43.12316 3.560001 1
50.62284 43.12316 3.560001 1
54.37269 43.12316 3.560001 1
58.12252 43.12316 3.560001 1
61.87237 43.12316 3.560001 1
43.12316 46.87299 3.560001 1
46.87299 46.87299 3.560001 1
50.62284 46.87299 3.560001 1
54.37269 46.87299 3.560001 1
58.12252 46.87299 3.560001 1
61.87237 46.87299 3.560001 1
54.37269 50.62284 3.560001 1
58.12252 50.62284 3.560001 1
61.87237 50.62284 3.560001 1
61.87237 28.1238 7.560001 1
58.12252 31.87363 7.560001 1
61.87237 31.87363 7.560001 1
65.6222 31.87363 7.560001 1
54.37269 35.62348 7.560001 1
58.12252 35.62348 7.560001 1
61.87237 35.62348 7.560001 1
46.87299 39.37331 7.560001 1
50.62284 39.37331 7.560001 1
54.37269 39.37331 7.560001 1
58.12252 39.37331 7.560001 1
61.87237 39.37331 7.560001 1
65.6222 39.37331 7.560001 1
43.12316 43.12316 7.560001 1
46.87299 43.12316 7.560001 1
50.62284 43.12316 7.560001 1
54.37269 43.12316 7.560001 1
58.12252 43.12316 7.560001 1
61.87237 43.12316 7.560001 1
43.12316 46.87299 7.560001 1
46.87299 46.87299 7.560001 1
50.62284 46.87299 7.560001 1
54.37269 46.87299 7.560001 1
58.12252 46.87299 7.560001 1
61.87237 46.87299 7.560001 1
50.62284 50.62284 7.560001 1
54.37269 50.62284 7.560001 1
58.12252 50.62284 7.560001 1
61.87237 50.62284 7.560001 1
54.37269 54.37269 7.560001 1
58.12252 54.37269 7.560001 1
58.12252 39.37331 11.56 1
61.87237 39.37331 11.56 1
54.37269 43.12316 11.56 1
58.12252 43.12316 11.56 1
61.87237 43.12316 11.56 1
54.37269 46.87299 11.56 1
58.12252 46.87299 11.56 1
61.87237 46.87299 11.56 1
54.37269 50.62284 11.56 1
58.12252 50.62284 11.56 1
61.87237 50.62284 11.56 1
54.37269 54.37269 11.56 1
58.12252 54.37269 11.56 1
