-35.6235 35.62348 -28.44 1
-43.12318 39.37331 -28.44 1
-39.37334 39.37331 -28.44 1
-35.6235 39.37331 -28.44 1
-31.87366 39.37331 -28.44 1
-46.87302 43.12316 -28.44 1
-43.12318 43.12316 -28.44 1
-39.37334 43.12316 -28.44 1
-35.6235 43.12316 -28.44 1
-46.87302 46.87299 -28.44 1
-43.12318 46.87299 -28.44 1
-39.37334 46.87299 -28.44 1
-35.6235 46.87299 -28.44 1
-46.87302 50.62284 -28.44 1
-43.12318 50.62284 -28.44 1
-39.37334 50.62284 -28.44 1
-35.6235 50.62284 -28.44 1
-43.12318 54.37269 -28.44 1
-39.37334 54.37269 -28.44 1
-35.6235 54.37269 -28.44 1
-43.12318 58.12252 -28.44 1
-39.37334 58.12252 -28.44 1
-35.6235 31.87363 -24.44 1
-43.12318 35.62348 -24.44 1
-39.37334 35.62348 -24.44 1
-35.6235 35.62348 -24.44 1
-31.87366 35.62348 -24.44 1
-46.87302 39.37331 -24.44 1
-43.12318 39.37331 -24.44 1
-39.37334 39.37331 -24.44 1
-35.6235 39.37331 -24.44 1
-31.87366 39.37331 -24.44 1
-46.87302 43.12316 -24.44 1
-43.12318 43.12316 -24.44 1
-39.37334 43.12316 -24.44 1
-35.6235 43.12316 -24.44 1
-31.87366 43.12316 -24.44 1
-46.87302 46.87299 -24.44 1
-43.12318 46.87299 -24.44 1
-39.37334 46.87299 -24.44 1
-35.6235 46.87299 -24.44 1
-31.87366 46.87299 -24.44 1
-46.87302 50.62284 -24.44 1
-43.12318 50.62284 -24.44 1
-39.37334 50.62284 -24.44 1
-35.6235 50.62284 -24.44 1
-31.87366 50.62284 -24.44 1
-46.87302 54.37269 -24.44 1
-43.12318 54.37269 -24.44 1
-39.37334 54.37269 -24.44 1
-35.6235 54.37269 -24.44 1
-43.12318 58.12252 -24.44 1
-39.37334 58.12252 -24.44 1
-35.6235 58.12252 -24.44 1
-39.37334 31.87363 -20.44 1
-35.6235 31.87363 -20.44 1
-46.87302 35.62348 -20.44 1
-43.12318 35.62348 -20.44 1
-39.37334 35.62348 -20.44 1
-35.6235 35.62348 -20.44 1
-31.87366 35.62348 -20.44 1
-46.87302 39.37331 -20.44 1
-43.12318 39.37331 -20.44 1
-39.37334 39.37331 -20.44 1
-35.6235 39.37331 -20.44 1
-31.87366 39.37331 -20.44 1
-50.62286 43.12316 -20.44 1
-46.87302 43.12316 -20.44 1
-43.12318 43.12316 -20.44 1
-39.37334 43.12316 -20.44 1
-35.6235 43.12316 -20.44 1
-31.87366 43.12316 -20.44 1
-50.62286 46.87299 -20.44 1
-46.87302 46.87299 -20.44 1
-43.12318 46.87299 -20.44 1
-39.37334 46.87299 -20.44 1
-35.6235 46.87299 -20.44 1
-31.87366 46.87299 -20.44 1
-46.87302 50.62284 -20.44 1
-43.12318 50.62284 -20.44 1
-39.37334 50.62284 -20.44 1
-35.6235 50.62284 -20.44 1
-31.87366 50.62284 -20.44 1
-46.87302 54.37269 -20.44 1
-43.12318 54.37269 -20.44 1
-39.37334 54.37269 -20.44 1
-35.6235 54.37269 -20.44 1
-43.12318 58.12252 -20.44 1
-39.37334 58.12252 -20.44 1
-35.6235 58.12252 -20.44 1
-43.12318 35.62348 -16.44 1
-39.37334 35.62348 -16.44 1
-35.6235 35.62348 -16.44 1
-46.87302 39.37331 -16.44 1
-43.12318 39.37331 -16.44 1
-39.37334 39.37331 -16.44 1
-35.6235 39.37331 -16.44 1
-46.87302 43.12316 -16.44 1
-43.12318 43.12316 -16.44 1
-39.37334 43.12316 -16.44 1
-35.6235 43.12316 -16.44 1
-46.87302 46.87299 -16.44 1
-43.12318 46.87299 -16.44 1
-39.37334 46.87299 -16.44 1
-35.6235 46.87299 -16.44 1
-46.87302 50.62284 -16.44 1
-43.12318 50.62284 -16.44 1
-39.37334 50.62284 -16.44 1
-35.6235 50.62284 -16.44 1
-39.37334 54.37269 -16.44 1
-35.6235 54.37269 -16.44 1
-39.37334 58.12252 -16.44 1
-35.6235 58.12252 -16.44 1
-46.87302 39.37331 -12.44 1
-43.12318 39.37331 -12.44 1
-39.37334 39.37331 -12.44 1
-35.6235 39.37331 -12.44 1
-46.87302 43.12316 -12.44 1
-43.12318 43.12316 -12.44 1
-39.37334 43.12316 -12.44 1
-35.6235 43.12316 -12.44 1
-46.87302 46.87299 -12.44 1
-43.12318 46.87299 -12.44 1
-39.37334 46.87299 -12.44 1
-35.6235 46.87299 -12.44 1
-39.37334 50.62284 -12.44 1
-35.6235 50.62284 -12.44 1
