-39.37334 61.87237 -28.44 1
-39.37334 65.6222 -28.44 1
-39.37334 69.37205 -28.44 1
-39.37334 61.87237 -24.44 1
-35.6235 61.87237 -24.44 1
-43.12318 65.6222 -24.44 1
-39.37334 65.6222 -24.44 1
-35.6235 65.6222 -24.44 1
-39.37334 69.37205 -24.44 1
-35.6235 69.37205 -24.44 1
-31.87366 69.37205 -24.44 1
-35.6235 73.12188 -24.44 1
-31.87366 73.12188 -24.44 1
-43.12318 65.6222 -20.44 1
-39.37334 65.6222 -20.44 1
-35.6235 65.6222 -20.44 1
-31.87366 65.6222 -20.44 1
-43.12318 69.37205 -20.44 1
-39.37334 69.37205 -20.44 1
-35.6235 69.37205 -20.44 1
-31.87366 69.37205 -20.44 1
-39.37334 73.12188 -20.44 1
-35.6235 73.12188 -20.44 1
-31.87366 73.12188 -20.44 1
-39.37334 76.87173 -20.44 1
-35.6235 76.87173 -20.44 1
-31.87366 76.87173 -20.44 1
-35.6235 80.62157 -20.44 1
-31.87366 80.62157 -20.44 1
-39.37334 61.87237 -16.44 1
-35.6235 61.87237 -16.44 1
-46.87302 65.6222 -16.44 1
-43.12318 65.6222 -16.44 1
-39.37334 65.6222 -16.44 1
-35.6235 65.6222 -16.44 1
-46.87302 69.37205 -16.44 1
-43.12318 69.37205 -16.44 1
-39.37334 69.37205 -16.44 1
-35.6235 69.37205 -16.44 1
-31.87366 69.37205 -16.44 1
-46.87302 73.12188 -16.44 1
-43.12318 73.12188 -16.44 1
-39.37334 73.12188 -16.44 1
-35.6235 73.12188 -16.44 1
-31.87366 73.12188 -16.44 1
-43.12318 76.87173 -16.44 1
-39.37334 76.87173 -16.44 1
-35.6235 76.87173 -16.44 1
-31.87366 76.87173 -16.44 1
-39.37334 80.62157 -16.44 1
-35.6235 80.62157 -16.44 1
-31.87366 80.62157 -16.44 1
-39.37334 61.87237 -12.44 1
-46.87302 65.6222 -12.44 1
-43.12318 65.6222 -12.44 1
-39.37334 65.6222 -12.44 1
-35.6235 65.6222 -12.44 1
-50.62286 69.37205 -12.44 1
-46.87302 69.37205 -12.44 1
-43.12318 69.37205 -12.44 1
-39.37334 69.37205 -12.44 1
-35.6235 69.37205 -12.44 1
-46.87302 73.12188 -12.44 1
-43.12318 73.12188 -12.44 1
-39.37334 73.12188 -12.44 1
-35.6235 73.12188 -12.44 1
-46.87302 76.87173 -12.44 1
-43.12318 76.87173 -12.44 1
-39.37334 76.87173 -12.44 1
-35.6235 76.87173 -12.44 1
-39.37334 80.62157 -12.44 1
-35.6235 80.62157 -12.44 1
-50.62286 65.6222 -8.439999 1
-46.87302 65.6222 -8.439999 1
-43.12318 65.6222 -8.439999 1
-39.37334 65.6222 -8.439999 1
-35.6235 65.6222 -8.439999 1
-50.62286 69.37205 -8.439999 1
-46.87302 69.37205 -8.439999 1
-43.12318 69.37205 -8.439999 1
-39.37334 69.37205 -8.439999 1
-35.6235 69.37205 -8.439999 1
-50.62286 73.12188 -8.439999 1
-46.87302 73.12188 -8.439999 1
-43.12318 73.12188 -8.439999 1
-39.37334 73.12188 -8.439999 1
-46.87302 76.87173 -8.439999 1
-43.12318 76.87173 -8.439999 1
-39.37334 76.87173 -8.439999 1
-46.87302 73.12188 -4.439999 1
