-54.37271 20.62411 -8.439999 1
-50.62286 20.62411 -8.439999 1
-46.87302 20.62411 -8.439999 1
-58.12255 24.37395 -8.439999 1
-54.37271 24.37395 -8.439999 1
-50.62286 24.37395 -8.439999 1
-46.87302 24.37395 -8.439999 1
-58.12255 28.1238 -8.439999 1
-54.37271 28.1238 -8.439999 1
-50.62286 28.1238 -8.439999 1
-46.87302 28.1238 -8.439999 1
-58.12255 31.87363 -8.439999 1
-54.37271 31.87363 -8.439999 1
-50.62286 31.87363 -8.439999 1
-46.87302 31.87363 -8.439999 1
-43.12318 31.87363 -8.439999 1
-54.37271 35.62348 -8.439999 1
-50.62286 35.62348 -8.439999 1
-46.87302 35.62348 -8.439999 1
-43.12318 35.62348 -8.439999 1
-54.37271 39.37331 -8.439999 1
-50.62286 39.37331 -8.439999 1
-46.87302 39.37331 -8.439999 1
-43.12318 39.37331 -8.439999 1
-54.37271 43.12316 -8.439999 1
-50.62286 43.12316 -8.439999 1
-46.87302 43.12316 -8.439999 1
-43.12318 43.12316 -8.439999 1
-54.37271 46.87299 -8.439999 1
-50.62286 46.87299 -8.439999 1
-46.87302 46.87299 -8.439999 1
-43.12318 46.87299 -8.439999 1
-58.12255 50.62284 -8.439999 1
-58.12255 20.62411 -4.439999 1
-54.37271 20.62411 -4.439999 1
-50.62286 20.62411 -4.439999 1
-61.87239 24.37395 -4.439999 1
-58.12255 24.37395 -4.439999 1
-54.37271 24.37395 -4.439999 1
-50.62286 24.37395 -4.439999 1
-46.87302 24.37395 -4.439999 1
-43.12318 24.37395 -4.439999 1
-61.87239 28.1238 -4.439999 1
-58.12255 28.1238 -4.439999 1
-54.37271 28.1238 -4.439999 1
-50.62286 28.1238 -4.439999 1
-46.87302 28.1238 -4.439999 1
-43.12318 28.1238 -4.439999 1
-61.87239 31.87363 -4.439999 1
-58.12255 31.87363 -4.439999 1
-54.37271 31.87363 -4.439999 1
-50.62286 31.87363 -4.439999 1
-46.87302 31.87363 -4.439999 1
-43.12318 31.87363 -4.439999 1
-39.37334 31.87363 -4.439999 1
-61.87239 35.62348 -4.439999 1
-58.12255 35.62348 -4.439999 1
-54.37271 35.62348 -4.439999 1
-50.62286 35.62348 -4.439999 1
-46.87302 35.62348 -4.439999 1
-43.12318 35.62348 -4.439999 1
-39.37334 35.62348 -4.439999 1
-61.87239 39.37331 -4.439999 1
-58.12255 39.37331 -4.439999 1
-54.37271 39.37331 -4.439999 1
-50.62286 39.37331 -4.439999 1
-46.87302 39.37331 -4.439999 1
-43.12318 39.37331 -4.439999 1
-39.37334 39.37331 -4.439999 1
-61.87239 43.12316 -4.439999 1
-58.12255 43.12316 -4.439999 1
-54.37271 43.12316 -4.439999 1
-50.62286 43.12316 -4.439999 1
-46.87302 43.12316 -4.439999 1
-43.12318 43.12316 -4.439999 1
-61.87239 46.87299 -4.439999 1
-58.12255 46.87299 -4.439999 1
-54.37271 46.87299 -4.439999 1
-50.62286 46.87299 -4.439999 1
-46.87302 46.87299 -4.439999 1
-43.12318 46.87299 -4.439999 1
-61.87239 50.62284 -4.439999 1
-58.12255 50.62284 -4.439999 1
-54.37271 50.62284 -4.439999 1
-58.12255 54.37269 -4.439999 1
-54.37271 20.62411 -0.439999 1
-61.87239 24.37395 -0.439999 1
-58.12255 24.37395 -0.439999 1
-54.37271 24.37395 -0.439999 1
-50.62286 24.37395 -0.439999 1
-46.87302 24.37395 -0.439999 1
-61.87239 28.1238 -0.439999 1
-58.12255 28.1238 -0.439999 1
-54.37271 28.1238 -0.439999 1
-50.62286 28.1238 -0.439999 1
-46.87302 28.1238 -0.439999 1
-43.12318 28.1238 -0.439999 1
-39.37334 28.1238 -0.439999 1
-65.62223 31.87363 -0.439999 1
-61.87239 31.87363 -0.439999 1
-58.12255 31.87363 -0.439999 1
-54.37271 31.87363 -0.439999 1
-50.62286 31.87363 -0.439999 1
-46.87302 31.87363 -0.439999 1
-43.12318 31.87363 -0.439999 1
-39.37334 31.87363 -0.439999 1
-65.62223 35.62348 -0.439999 1
-61.87239 35.62348 -0.439999 1
-58.12255 35.62348 -0.439999 1
-54.37271 35.62348 -0.439999 1
-50.62286 35.62348 -0.439999 1
-46.87302 35.62348 -0.439999 1
-43.12318 35.62348 -0.439999 1
-39.37334 35.62348 -0.439999 1
-65.62223 39.37331 -0.439999 1
-61.87239 39.37331 -0.439999 1
-58.12255 39.37331 -0.439999 1
-54.37271 39.37331 -0.439999 1
-50.62286 39.37331 -0.439999 1
-46.87302 39.37331 -0.439999 1
-43.12318 39.37331 -0.439999 1
-39.37334 39.37331 -0.439999 1
-61.87239 43.12316 -0.439999 1
-58.12255 43.12316 -0.439999 1
-54.37271 43.12316 -0.439999 1
-50.62286 43.12316 -0.439999 1
-46.87302 43.12316 -0.439999 1
-43.12318 43.12316 -0.439999 1
-61.87239 46.87299 -0.439999 1
-58.12255 46.87299 -0.439999 1
-54.37271 46.87299 -0.439999 1
-50.62286 46.87299 -0.439999 1
-46.87302 46.87299 -0.439999 1
-43.12318 46.87299 -0.439999 1
-61.87239 50.62284 -0.439999 1
-58.12255 50.62284 -0.439999 1
-54.37271 50.62284 -0.439999 1
-50.62286 50.62284 -0.439999 1
-58.12255 54.37269 -0.439999 1
-54.37271 54.37269 -0.439999 1
-58.12255 58.12252 -0.439999 1
-61.87239 28.1238 3.560001 1
-58.12255 28.1238 3.560001 1
-54.37271 28.1238 3.560001 1
-50.62286 28.1238 3.560001 1
-46.87302 28.1238 3.560001 1
-43.12318 28.1238 3.560001 1
-65.62223 31.87363 3.560001 1
-61.87239 31.87363 3.560001 1
-58.12255 31.87363 3.560001 1
-54.37271 31.87363 3.560001 1
-50.62286 31.87363 3.560001 1
-46.87302 31.87363 3.560001 1
-43.12318 31.87363 3.560001 1
-39.37334 31.87363 3.560001 1
-65.62223 35.62348 3.560001 1
-61.87239 35.62348 3.560001 1
-58.12255 35.62348 3.560001 1
-54.37271 35.62348 3.560001 1
-50.62286 35.62348 3.560001 1
-46.87302 35.62348 3.560001 1
-43.12318 35.62348 3.560001 1
-39.37334 35.62348 3.560001 1
-65.62223 39.37331 3.560001 1
-61.87239 39.37331 3.560001 1
-58.12255 39.37331 3.560001 1
-54.37271 39.37331 3.560001 1
-50.62286 39.37331 3.560001 1
-46.87302 39.37331 3.560001 1
-43.12318 39.37331 3.560001 1
-39.37334 39.37331 3.560001 1
-65.62223 43.12316 3.560001 1
-61.87239 43.12316 3.560001 1
-58.12255 43.12316 3.560001 1
-54.37271 43.12316 3.560001 1
-50.62286 43.12316 3.560001 1
-46.87302 43.12316 3.560001 1
-43.12318 43.12316 3.560001 1
-39.37334 43.12316 3.560001 1
-61.87239 46.87299 3.560001 1
-58.12255 46.87299 3.560001 1
-54.37271 46.87299 3.560001 1
-50.62286 46.87299 3.560001 1
-46.87302 46.87299 3.560001 1
-43.12318 46.87299 3.560001 1
-61.87239 50.62284 3.560001 1
-58.12255 50.62284 3.560001 1
-54.37271 50.62284 3.560001 1
-50.62286 50.62284 3.560001 1
-46.87302 50.62284 3.560001 1
-61.87239 54.37269 3.560001 1
-58.12255 54.37269 3.560001 1
-54.37271 54.37269 3.560001 1
-50.62286 54.37269 3.560001 1
-58.12255 58.12252 3.560001 1
-54.37271 58.12252 3.560001 1
-61.87239 31.87363 7.560001 1
-58.12255 31.87363 7.560001 1
-54.37271 31.87363 7.560001 1
-50.62286 31.87363 7.560001 1
-46.87302 31.87363 7.560001 1
-43.12318 31.87363 7.560001 1
-61.87239 35.62348 7.560001 1
-58.12255 35.62348 7.560001 1
-54.37271 35.62348 7.560001 1
-50.62286 35.62348 7.560001 1
-46.87302 35.62348 7.560001 1
-43.12318 35.62348 7.560001 1
-39.37334 35.62348 7.560001 1
-65.62223 39.37331 7.560001 1
-61.87239 39.37331 7.560001 1
-58.12255 39.37331 7.560001 1
-54.37271 39.37331 7.560001 1
-50.62286 39.37331 7.560001 1
-46.87302 39.37331 7.560001 1
-43.12318 39.37331 7.560001 1
-39.37334 39.37331 7.560001 1
-65.62223 43.12316 7.560001 1
-61.87239 43.12316 7.560001 1
-58.12255 43.12316 7.560001 1
-54.37271 43.12316 7.560001 1
-50.62286 43.12316 7.560001 1
-46.87302 43.12316 7.560001 1
-43.12318 43.12316 7.560001 1
-39.37334 43.12316 7.560001 1
-61.87239 46.87299 7.560001 1
-58.12255 46.87299 7.560001 1
-54.37271 46.87299 7.560001 1
-50.62286 46.87299 7.560001 1
-46.87302 46.87299 7.560001 1
-43.12318 46.87299 7.560001 1
-39.37334 46.87299 7.560001 1
-61.87239 50.62284 7.560001 1
-58.12255 50.62284 7.560001 1
-54.37271 50.62284 7.560001 1
-50.62286 50.62284 7.560001 1
-46.87302 50.62284 7.560001 1
-61.87239 54.37269 7.560001 1
-58.12255 54.37269 7.560001 1
-54.37271 54.37269 7.560001 1
-50.62286 54.37269 7.560001 1
-46.87302 54.37269 7.560001 1
-58.12255 58.12252 7.560001 1
-54.37271 58.12252 7.560001 1
-50.62286 58.12252 7.560001 1
-58.12255 35.62348 11.56 1
-54.37271 35.62348 11.56 1
-50.62286 35.62348 11.56 1
-46.87302 35.62348 11.56 1
-43.12318 35.62348 11.56 1
-61.87239 39.37331 11.56 1
-58.12255 39.37331 11.56 1
-54.37271 39.37331 11.56 1
-50.62286 39.37331 11.56 1
-46.87302 39.37331 11.56 1
-43.12318 39.37331 11.56 1
-39.37334 39.37331 11.56 1
-61.87239 43.12316 11.56 1
-58.12255 43.12316 11.56 1
-54.37271 43.12316 11.56 1
-50.62286 43.12316 11.56 1
-46.87302 43.12316 11.56 1
-43.12318 43.12316 11.56 1
-39.37334 43.12316 11.56 1
-61.87239 46.87299 11.56 1
-58.12255 46.87299 11.56 1
-54.37271 46.87299 11.56 1
-50.62286 46.87299 11.56 1
-46.87302 46.87299 11.56 1
-43.12318 46.87299 11.56 1
-39.37334 46.87299 11.56 1
-61.87239 50.62284 11.56 1
-58.12255 50.62284 11.56 1
-54.37271 50.62284 11.56 1
-50.62286 50.62284 11.56 1
-46.87302 50.62284 11.56 1
-43.12318 50.62284 11.56 1
-58.12255 54.37269 11.56 1
-54.37271 54.37269 11.56 1
-50.62286 54.37269 11.56 1
-46.87302 54.37269 11.56 1
-43.12318 54.37269 11.56 1
-58.12255 58.12252 11.56 1
-54.37271 58.12252 11.56 1
-50.62286 58.12252 11.56 1
-46.87302 58.12252 11.56 1
-46.87302 39.37331 15.56 1
-43.12318 39.37331 15.56 1
-58.12255 43.12316 15.56 1
-54.37271 43.12316 15.56 1
-50.62286 43.12316 15.56 1
-46.87302 43.12316 15.56 1
-43.12318 43.12316 15.56 1
-58.12255 46.87299 15.56 1
-54.37271 46.87299 15.56 1
-50.62286 46.87299 15.56 1
-46.87302 46.87299 15.56 1
-43.12318 46.87299 15.56 1
-58.12255 50.62284 15.56 1
-54.37271 50.62284 15.56 1
-50.62286 50.62284 15.56 1
-46.87302 50.62284 15.56 1
-43.12318 50.62284 15.56 1
-58.12255 54.37269 15.56 1
-54.37271 54.37269 15.56 1
-50.62286 54.37269 15.56 1
-46.87302 54.37269 15.56 1
-54.37271 58.12252 15.56 1
-50.62286 58.12252 15.56 1
-50.62286 50.62284 19.56 1
-54.37271 54.37269 19.56 1
